# .PCD v0.7 - Point Cloud Data file format
VERSION 0.7
FIELDS x y z rgb
SIZE 4 4 4 4
TYPE F F F F
COUNT 1 1 1 1
WIDTH 954
HEIGHT 1
VIEWPOINT 0 0 0 1 0 0 0
POINTS 954
DATA ascii
-0.083689533 0.15474667 0.82900006 5.9696688e-039
-0.082110479 0.15474667 0.82900006 5.5104941e-039
-0.080531433 0.15474667 0.82900006 5.0513236e-039
-0.079142861 0.15512 0.83100003 5.2350002e-039
-0.07756 0.15512 0.83100003 5.4186628e-039
-0.075977147 0.15512 0.83100003 4.9598357e-039
-0.074573338 0.15549333 0.83300006 4.5003008e-039
-0.072986677 0.15549333 0.83300006 4.8676442e-039
-0.071571432 0.15586667 0.83500004 5.3268315e-039
-0.069813341 0.15549333 0.83300006 4.775827e-039
-0.068390481 0.15586667 0.83500004 4.3166397e-039
-0.066799998 0.15586667 0.83500004 4.1333176e-039
-0.065209523 0.15586667 0.83500004 4.0414807e-039
-0.063771427 0.15624 0.83700001 2.847978e-039
-0.062177144 0.15624 0.83700001 1.6537578e-039
-0.060582858 0.15624 0.83700001 2.755425e-039
-0.059129525 0.15661335 0.83900005 3.8592713e-039
-0.057668574 0.15698667 0.84100002 4.4124647e-039
-0.05606667 0.15698667 0.84100002 4.9742494e-039
-0.05459429 0.15736 0.84300005 5.1690509e-039
-0.052988574 0.15736 0.84300005 5.4416791e-039
-0.051504765 0.15773334 0.84500003 5.439161e-039
-0.050072383 0.15829334 0.84800005 5.5256127e-039
-0.048457146 0.15829334 0.84800005 5.065715e-039
-0.046952382 0.15866667 0.85000002 4.6972772e-039
-0.04544 0.15904 0.85200006 4.6972575e-039
-0.044022858 0.15978669 0.85600007 4.6976219e-039
-0.042491429 0.16016001 0.85800004 4.6979876e-039
-0.041047622 0.16090667 0.86200005 4.6972758e-039
-0.039634287 0.16184001 0.86700004 4.7880393e-039
-0.038070474 0.16221334 0.86900002 4.9731382e-039
-0.036415238 0.16221334 0.86900002 4.5128775e-039
-0.16384001 0.16896001 0.89600003 6.5469239e-039
-0.16249524 0.16933715 0.89800006 7.1919738e-039
-0.16078477 0.16933715 0.89800006 7.4693244e-039
-0.15872 0.16896001 0.89600003 7.8388118e-039
-0.15701333 0.16896001 0.89600003 7.6580036e-039
-0.15530667 0.16896001 0.89600003 7.5643717e-039
-0.15325716 0.16858286 0.89400005 7.5629353e-039
-0.15155429 0.16858286 0.89400005 7.5618521e-039
-0.14281143 0.16066287 0.85200006 7.4707271e-039
-0.14118859 0.16066287 0.85200006 7.4714488e-039
-0.13841906 0.15934287 0.84500003 7.2831184e-039
-0.13680953 0.15934287 0.84500003 7.0076064e-039
-0.13488001 0.15896572 0.84300005 7.4682132e-039
-0.13327429 0.15896572 0.84300005 7.930985e-039
-0.13135618 0.15858857 0.84100002 7.4721732e-039
-0.12944573 0.15821144 0.83900005 7.1051984e-039
-0.12754285 0.15783428 0.83700001 7.1059257e-039
-0.12594858 0.15783428 0.83700001 7.1988163e-039
-0.12435429 0.15783428 0.83700001 7.6500807e-039
-0.12246668 0.15745714 0.83500004 8.1016687e-039
-0.12087619 0.15745714 0.83500004 6.6225604e-039
-0.11928572 0.15745714 0.83500004 5.1435123e-039
-0.11769524 0.15745714 0.83500004 5.0523998e-039
-0.11610477 0.15745714 0.83500004 4.8694463e-039
-0.11424001 0.15708001 0.83300006 5.5108598e-039
-0.11238286 0.15670286 0.83100003 6.1537069e-039
-0.11053333 0.15632573 0.82900006 5.9703933e-039
-0.1089543 0.15632573 0.82900006 5.879271e-039
-0.10737525 0.15632573 0.82900006 5.7870726e-039
-0.1057962 0.15632573 0.82900006 5.7870726e-039
-0.10421715 0.15632573 0.82900006 5.6952371e-039
-0.1026381 0.15632573 0.82900006 5.6034072e-039
-0.10105906 0.15632573 0.82900006 5.4193831e-039
-0.099480011 0.15632573 0.82900006 5.2357163e-039
-0.097900957 0.15632573 0.82900006 5.4190342e-039
-0.096321911 0.15632573 0.82900006 5.6026953e-039
-0.094742857 0.15632573 0.82900006 5.4190159e-039
-0.093163818 0.15632573 0.82900006 5.3275378e-039
-0.09136381 0.15594856 0.82700002 5.3275364e-039
-0.089788571 0.15594856 0.82700002 5.3275364e-039
-0.088213332 0.15594856 0.82700002 5.6026841e-039
-0.086638093 0.15594856 0.82700002 5.9700261e-039
-0.085062861 0.15594856 0.82700002 5.7859964e-039
-0.083487622 0.15594856 0.82700002 5.6941637e-039
-0.082110479 0.15632573 0.82900006 5.051318e-039
-0.080531433 0.15632573 0.82900006 4.4088297e-039
-0.078952387 0.15632573 0.82900006 4.5921448e-039
-0.077373333 0.15632573 0.82900006 4.8676456e-039
-0.075794294 0.15632573 0.82900006 4.224793e-039
-0.074394293 0.15670286 0.83100003 3.5819459e-039
-0.072811432 0.15670286 0.83100003 4.1329617e-039
-0.071400009 0.15708001 0.83300006 4.7758087e-039
-0.069813341 0.15708001 0.83300006 4.4084668e-039
-0.068226673 0.15708001 0.83300006 4.0411234e-039
-0.066799998 0.15745714 0.83500004 4.0411234e-039
-0.065209523 0.15745714 0.83500004 4.0421982e-039
-0.063619047 0.15745714 0.83500004 3.5826619e-039
-0.062028576 0.15745714 0.83500004 3.031649e-039
-0.060582858 0.15783428 0.83700001 3.7695615e-039
-0.058988571 0.15783428 0.83700001 4.5993474e-039
-0.057531431 0.15821144 0.83900005 4.7931008e-039
-0.05606667 0.15858857 0.84100002 5.0790035e-039
-0.05459429 0.15896572 0.84300005 5.0754106e-039
-0.052988574 0.15896572 0.84300005 5.0739742e-039
-0.051504765 0.15934287 0.84500003 4.8856383e-039
-0.050072383 0.15990858 0.84800005 4.7894868e-039
-0.048457146 0.15990858 0.84800005 4.5136118e-039
-0.047062859 0.16066287 0.85200006 4.3299212e-039
-0.045546666 0.16104001 0.85400003 4.2380661e-039
-0.044125713 0.16179429 0.85800004 4.0529741e-039
-0.042491429 0.16179429 0.85800004 4.6054375e-039
-0.041047622 0.16254859 0.86200005 5.1557414e-039
-0.039542861 0.16311431 0.86500007 5.340497e-039
-0.037982859 0.16349144 0.86700004 5.617437e-039
-0.036415238 0.16386856 0.86900002 5.4330485e-039
-0.034760002 0.16386856 0.86900002 5.3404802e-039
-0.16384001 0.17066668 0.89600003 6.2725202e-039
-0.16213334 0.17066668 0.89600003 7.1927011e-039
-0.16042666 0.17066668 0.89600003 7.4689586e-039
-0.15872 0.17066668 0.89600003 7.8384474e-039
-0.15701333 0.17066668 0.89600003 7.3824915e-039
-0.15530667 0.17066668 0.89600003 7.0133573e-039
-0.15359999 0.17066668 0.89600003 7.195236e-039
-0.14579047 0.16380952 0.86000001 7.4707355e-039
-0.14281143 0.16228572 0.85200006 7.2870575e-039
-0.14118859 0.16228572 0.85200006 7.1948661e-039
-0.13891047 0.16152382 0.84800005 6.9161352e-039
-0.13680953 0.16095237 0.84500003 6.6402616e-039
-0.13488001 0.16057143 0.84300005 6.9157596e-039
-0.13327429 0.16057143 0.84300005 7.2795031e-039
-0.13104382 0.15980953 0.83900005 6.724893e-039
-0.12944573 0.15980953 0.83900005 6.2639218e-039
-0.12754285 0.15942858 0.83700001 6.2621282e-039
-0.12594858 0.15942858 0.83700001 6.3633103e-039
-0.12405715 0.15904762 0.83500004 7.8423851e-039
-0.12246668 0.15904762 0.83500004 9.3056279e-039
-0.12087619 0.15904762 0.83500004 7.1876466e-039
-0.11928572 0.15904762 0.83500004 5.063194e-039
-0.11769524 0.15904762 0.83500004 4.3166341e-039
-0.11610477 0.15904762 0.83500004 3.6737884e-039
-0.11396571 0.15828572 0.83100003 4.5925063e-039
-0.11238286 0.15828572 0.83100003 5.6027108e-039
-0.11053333 0.15790477 0.82900006 5.6945603e-039
-0.1089543 0.15790477 0.82900006 5.7867447e-039
-0.10737525 0.15790477 0.82900006 5.7874537e-039
-0.1057962 0.15790477 0.82900006 5.8792822e-039
-0.10421715 0.15790477 0.82900006 5.7895921e-039
-0.10239048 0.15752381 0.82700002 5.7888831e-039
-0.10081524 0.15752381 0.82700002 5.420832e-039
-0.099240005 0.15752381 0.82700002 5.1442507e-039
-0.097664766 0.15752381 0.82700002 5.4190426e-039
-0.096089527 0.15752381 0.82700002 5.6948938e-039
-0.094514288 0.15752381 0.82700002 5.6034044e-039
-0.092939049 0.15752381 0.82700002 5.5115675e-039
-0.09136381 0.15752381 0.82700002 5.3278965e-039
-0.089788571 0.15752381 0.82700002 5.2357009e-039
-0.088213332 0.15752381 0.82700002 5.4197306e-039
-0.086638093 0.15752381 0.82700002 5.6941651e-039
-0.085062861 0.15752381 0.82700002 5.5104997e-039
-0.083487622 0.15752381 0.82700002 5.4186726e-039
-0.081912383 0.15752381 0.82700002 4.5925203e-039
-0.080337144 0.15752381 0.82700002 3.8578279e-039
-0.078952387 0.15790477 0.82900006 4.0418492e-039
-0.077373333 0.15790477 0.82900006 4.3166327e-039
-0.075794294 0.15790477 0.82900006 3.4904677e-039
-0.074215241 0.15790477 0.82900006 2.7554306e-039
-0.072636195 0.15790477 0.82900006 3.4901216e-039
-0.071228571 0.15828572 0.83100003 4.2248014e-039
-0.069813341 0.15866667 0.83300006 3.9492893e-039
-0.068226673 0.15866667 0.83300006 3.7656169e-039
-0.066799998 0.15904762 0.83500004 3.9492865e-039
-0.065209523 0.15904762 0.83500004 4.1340701e-039
-0.063619047 0.15904762 0.83500004 4.3177775e-039
-0.062028576 0.15904762 0.83500004 4.5147146e-039
-0.060582858 0.15942858 0.83700001 4.8963975e-039
-0.058988571 0.15942858 0.83700001 5.3552316e-039
-0.057531431 0.15980953 0.83900005 5.2630514e-039
-0.055933338 0.15980953 0.83900005 5.1683363e-039
-0.054464761 0.16019048 0.84100002 4.8903074e-039
-0.052988574 0.16057143 0.84300005 4.7034022e-039
-0.051504765 0.16095237 0.84500003 4.3321086e-039
-0.049895242 0.16095237 0.84500003 4.0555189e-039
-0.048285715 0.16095237 0.84500003 4.0544371e-039
-0.046952382 0.16190477 0.85000002 4.0544287e-039
-0.04544 0.16228572 0.85200006 3.7792739e-039
-0.043817144 0.16228572 0.85200006 3.5041318e-039
-0.042392384 0.16304763 0.85600007 4.6068808e-039
-0.040952381 0.16380952 0.86000001 5.7096368e-039
-0.039542861 0.16476192 0.86500007 5.9858748e-039
-0.037982859 0.16514286 0.86700004 6.267121e-039
-0.03633143 0.16514286 0.86700004 6.4568905e-039
-0.034680001 0.16514286 0.86700004 6.6401999e-039
-0.16384001 0.17237334 0.89600003 6.7338767e-039
-0.16213334 0.17237334 0.89600003 7.2852652e-039
-0.16042666 0.17237334 0.89600003 7.2859995e-039
-0.15872 0.17237334 0.89600003 7.3792643e-039
-0.15193143 0.16679429 0.86700004 6.3669159e-039
-0.15028 0.16679429 0.86700004 5.3545772e-039
-0.15359999 0.17237334 0.89600003 6.548803e-039
-0.14579047 0.16544762 0.86000001 7.7433735e-039
-0.14348191 0.16467811 0.85600007 7.193071e-039
-0.14152001 0.16429335 0.85400003 6.7346138e-039
-0.13923809 0.16352382 0.85000002 6.3665571e-039
-0.13729525 0.16313905 0.84800005 5.9984865e-039
-0.13520001 0.16256191 0.84500003 5.443875e-039
-0.13327429 0.16217715 0.84300005 4.8896054e-039
-0.13104382 0.16140763 0.83900005 5.0617703e-039
-0.12913714 0.16102286 0.83700001 5.2361045e-039
-0.12754285 0.16102286 0.83700001 4.4167498e-039
-0.12564762 0.16063811 0.83500004 3.5974667e-039
-0.12405715 0.16063811 0.83500004 5.9960132e-039
-0.12246668 0.16063811 0.83500004 8.3962945e-039
-0.12058668 0.16025333 0.83300006 7.3800098e-039
-0.11900001 0.16025333 0.83300006 6.3636382e-039
-0.11741334 0.16025333 0.83300006 6.074776e-039
-0.11582667 0.16025333 0.83300006 5.8778389e-039
-0.11396571 0.15986857 0.83100003 5.9696814e-039
-0.11211239 0.15948382 0.82900006 6.0615463e-039
-0.11053333 0.15948382 0.82900006 5.5119977e-039
-0.10869142 0.15909904 0.82700002 4.8705701e-039
-0.10711619 0.15909904 0.82700002 5.3293763e-039
-0.10554095 0.15909904 0.82700002 5.7881796e-039
-0.10396571 0.15909904 0.82700002 5.7892418e-039
-0.10239048 0.15909904 0.82700002 5.8825234e-039
-0.10081524 0.15909904 0.82700002 6.2502354e-039
-0.099240005 0.15909904 0.82700002 6.5264579e-039
-0.097664766 0.15909904 0.82700002 6.341352e-039
-0.096089527 0.15909904 0.82700002 6.2484221e-039
-0.094514288 0.15909904 0.82700002 5.8799871e-039
-0.092714287 0.15871429 0.82500005 5.6055568e-039
-0.091142863 0.15871429 0.82500005 5.0523914e-039
-0.089571431 0.15871429 0.82500005 4.5928538e-039
-0.088000007 0.15871429 0.82500005 4.9598371e-039
-0.086638093 0.15909904 0.82700002 5.2349932e-039
-0.085062861 0.15909904 0.82700002 5.1431675e-039
-0.083487622 0.15909904 0.82700002 5.0517048e-039
-0.081912383 0.15909904 0.82700002 4.6843782e-039
-0.080337144 0.15909904 0.82700002 4.4092108e-039
-0.078761905 0.15909904 0.82700002 4.3169984e-039
-0.077186674 0.15909904 0.82700002 4.3166341e-039
-0.075611427 0.15909904 0.82700002 3.857451e-039
-0.074215241 0.15948382 0.82900006 3.4904789e-039
-0.072636195 0.15948382 0.82900006 4.0415031e-039
-0.071228571 0.15986857 0.83100003 4.6843418e-039
-0.069645718 0.15986857 0.83100003 4.5921391e-039
-0.068226673 0.16025333 0.83300006 4.5003008e-039
-0.066640005 0.16025333 0.83300006 4.6850466e-039
-0.065053336 0.16025333 0.83300006 4.8698667e-039
-0.063466676 0.16025333 0.83300006 5.0665263e-039
-0.061880007 0.16025333 0.83300006 5.3549318e-039
-0.060438097 0.16063811 0.83500004 5.4456756e-039
-0.058847621 0.16063811 0.83500004 5.6286208e-039
-0.057394285 0.16102286 0.83700001 5.2587592e-039
-0.055799998 0.16102286 0.83700001 4.8892495e-039
-0.05433524 0.16140763 0.83900005 4.7041295e-039
-0.052737147 0.16140763 0.83900005 4.4246658e-039
-0.051139049 0.16140763 0.83900005 4.057314e-039
-0.049777146 0.16217715 0.84300005 3.5981351e-039
-0.048285715 0.16256191 0.84500003 3.9654757e-039
-0.046841905 0.16313905 0.84800005 4.3331792e-039
-0.04544 0.16390859 0.85200006 4.4250189e-039
-0.043919999 0.16429335 0.85400003 4.6086857e-039
-0.042392384 0.16467811 0.85600007 5.5273966e-039
-0.040952381 0.16544762 0.86000001 6.354293e-039
-0.039542861 0.16640954 0.86500007 6.6348399e-039
-0.037982859 0.16679429 0.86700004 6.9153701e-039
-0.03633143 0.16679429 0.86700004 7.0086419e-039
-0.034680001 0.16679429 0.86700004 7.1015634e-039
-0.16213334 0.17408001 0.89600003 7.3763875e-039
-0.16042666 0.17408001 0.89600003 7.195243e-039
-0.15358287 0.16844572 0.86700004 7.0111881e-039
-0.15193143 0.16844572 0.86700004 5.3509493e-039
-0.15028 0.16844572 0.86700004 3.7912074e-039
-0.14862858 0.16844572 0.86700004 5.9077552e-039
-0.14579047 0.16708572 0.86000001 8.0196003e-039
-0.14381716 0.16669716 0.85800004 7.0994376e-039
-0.14185144 0.16630858 0.85600007 6.272907e-039
-0.13956572 0.16553144 0.85200006 5.8065436e-039
-0.13729525 0.16475429 0.84800005 5.4316472e-039
-0.13488001 0.16378286 0.84300005 3.955085e-039
-0.1329581 0.16339429 0.84100002 2.5746743e-039
-0.13104382 0.16300572 0.83900005 3.3986743e-039
-0.12913714 0.16261715 0.83700001 4.3170166e-039
-0.12723809 0.16222858 0.83500004 2.5721296e-039
-0.12564762 0.16222858 0.83500004 8.3520191e-040
-0.12405715 0.16222858 0.83500004 4.1495853e-039
-0.12217335 0.16184001 0.83300006 7.4714698e-039
-0.12058668 0.16184001 0.83300006 7.5694275e-039
-0.11871429 0.16145143 0.83100003 7.6594343e-039
-0.11713143 0.16145143 0.83100003 7.8416354e-039
-0.11554857 0.16145143 0.83100003 8.0999101e-039
-0.11369143 0.16106287 0.82900006 7.3479958e-039
-0.11211239 0.16106287 0.82900006 6.616176e-039
-0.11026667 0.16067429 0.82700002 5.3333448e-039
-0.10869142 0.16067429 0.82700002 4.0444136e-039
-0.10711619 0.16067429 0.82700002 4.8676989e-039
-0.10554095 0.16067429 0.82700002 5.6941931e-039
-0.10396571 0.16067429 0.82700002 5.8778403e-039
-0.10239048 0.16067429 0.82700002 6.0640602e-039
-0.10081524 0.16067429 0.82700002 7.0014659e-039
-0.099240005 0.16067429 0.82700002 8.0041075e-039
-0.097664766 0.16067429 0.82700002 7.3540704e-039
-0.095857151 0.16028571 0.82500005 6.7980155e-039
-0.094285719 0.16028571 0.82500005 6.2462669e-039
-0.092714287 0.16028571 0.82500005 5.6952497e-039
-0.091142863 0.16028571 0.82500005 4.8687274e-039
-0.089571431 0.16028571 0.82500005 4.0414863e-039
-0.088000007 0.16028571 0.82500005 4.4084654e-039
-0.086638093 0.16067429 0.82700002 4.8676484e-039
-0.084857151 0.16028571 0.82500005 4.7758171e-039
-0.083487622 0.16067429 0.82700002 4.6839901e-039
-0.081912383 0.16067429 0.82700002 4.775834e-039
-0.080337144 0.16067429 0.82700002 4.9594979e-039
-0.078761905 0.16067429 0.82700002 4.5921476e-039
-0.077000007 0.16028571 0.82500005 4.3166481e-039
-0.075428575 0.16028571 0.82500005 4.3166551e-039
-0.074036188 0.16067429 0.82700002 4.3166705e-039
-0.072460949 0.16067429 0.82700002 4.6843852e-039
-0.07088571 0.16067429 0.82700002 5.1532513e-039
-0.069310479 0.16067429 0.82700002 5.2547754e-039
-0.067899056 0.16106287 0.82900006 5.3494835e-039
-0.066480003 0.16145143 0.83100003 5.5360272e-039
-0.06489715 0.16145143 0.83100003 5.7215255e-039
-0.063314289 0.16145143 0.83100003 5.9073825e-039
-0.061731428 0.16145143 0.83100003 6.1807338e-039
-0.060293339 0.16184001 0.83300006 6.0871018e-039
-0.058847621 0.16222858 0.83500004 5.992381e-039
-0.057394285 0.16261715 0.83700001 5.3466473e-039
-0.055799998 0.16261715 0.83700001 4.7027114e-039
-0.05433524 0.16300572 0.83900005 4.4261161e-039
-0.052737147 0.16300572 0.83900005 4.2413605e-039
-0.051260952 0.16339429 0.84100002 3.6885441e-039
-0.049777146 0.16378286 0.84300005 3.2308071e-039
-0.048285715 0.16417143 0.84500003 3.8736612e-039
-0.046841905 0.16475429 0.84800005 4.6076389e-039
-0.04544 0.16553144 0.85200006 5.1572282e-039
-0.044022858 0.16630858 0.85600007 5.808689e-039
-0.042491429 0.16669716 0.85800004 6.4583576e-039
-0.040857144 0.16669716 0.85800004 7.102648e-039
-0.039542861 0.16805714 0.86500007 7.3799566e-039
-0.035660952 0.15814857 0.81400001 7.6543813e-039
-0.034110479 0.15814857 0.81400001 7.6532995e-039
-0.032559998 0.15814857 0.81400001 7.6540267e-039
-0.16213334 0.17578667 0.89600003 7.7433763e-039
-0.15559238 0.17048953 0.86900002 7.3767658e-039
-0.15358287 0.17009714 0.86700004 7.0104552e-039
-0.15193143 0.17009714 0.86700004 6.0873919e-039
-0.15028 0.17009714 0.86700004 5.2587677e-039
-0.14777143 0.1691162 0.86200005 6.3662236e-039
-0.1451124 0.16793905 0.85600007 7.4696649e-039
-0.14348191 0.16793905 0.85600007 6.7302992e-039
-0.14152001 0.16754667 0.85400003 5.9030356e-039
-0.13956572 0.1671543 0.85200006 5.5245477e-039
-0.13729525 0.16636953 0.84800005 5.0581662e-039
-0.13488001 0.16538857 0.84300005 4.4138533e-039
-0.1329581 0.16499619 0.84100002 3.7681462e-039
-0.13104382 0.16460383 0.83900005 4.3195291e-039
-0.12913714 0.16421142 0.83700001 4.8712442e-039
-0.12723809 0.16381906 0.83500004 3.7681266e-039
-0.12564762 0.16381906 0.83500004 2.7569076e-039
-0.12376001 0.16342667 0.83300006 4.3249746e-039
-0.12217335 0.16342667 0.83300006 5.9956334e-039
-0.12029715 0.16303429 0.83100003 6.8293696e-039
-0.11871429 0.16303429 0.83100003 7.6605652e-039
-0.11684953 0.16264191 0.82900006 7.8420964e-039
-0.11527049 0.16264191 0.82900006 8.0257366e-039
-0.11369143 0.16264191 0.82900006 7.8398824e-039
-0.11184191 0.16224952 0.82700002 7.7458552e-039
-0.11000001 0.16185716 0.82500005 6.8220814e-039
-0.10869142 0.16224952 0.82700002 5.8987056e-039
-0.10685714 0.16185716 0.82500005 6.34784e-039
-0.10554095 0.16224952 0.82700002 6.7972967e-039
-0.10371429 0.16185716 0.82500005 7.0724108e-039
-0.10214286 0.16185716 0.82500005 7.347623e-039
-0.10057143 0.16185716 0.82500005 7.6483052e-039
-0.099000007 0.16185716 0.82500005 8.0131081e-039
-0.097428575 0.16185716 0.82500005 7.3573172e-039
-0.095857151 0.16185716 0.82500005 6.7969562e-039
-0.094285719 0.16185716 0.82500005 6.5217874e-039
-0.092489518 0.16146477 0.82300001 6.2469914e-039
-0.090921909 0.16146477 0.82300001 5.6952539e-039
-0.089354284 0.16146477 0.82300001 5.1435165e-039
-0.087786667 0.16146477 0.82300001 5.4186572e-039
-0.086219043 0.16146477 0.82300001 5.6941637e-039
-0.084857151 0.16185716 0.82500005 5.6023296e-039
-0.083285719 0.16185716 0.82500005 5.5104955e-039
-0.081714287 0.16185716 0.82500005 5.6941693e-039
-0.080142856 0.16185716 0.82500005 5.8782018e-039
-0.078571431 0.16185716 0.82500005 5.6948938e-039
-0.077000007 0.16185716 0.82500005 5.6034366e-039
-0.075428575 0.16185716 0.82500005 5.6102722e-039
-0.073857144 0.16185716 0.82500005 5.6171063e-039
-0.072285712 0.16185716 0.82500005 6.0795306e-039
-0.070714295 0.16185716 0.82500005 6.4504739e-039
-0.069310479 0.16224952 0.82700002 6.1756989e-039
-0.06773524 0.16224952 0.82700002 5.8137463e-039
-0.066320002 0.16264191 0.82900006 5.8141134e-039
-0.064740956 0.16264191 0.82900006 5.8148239e-039
-0.063314289 0.16303429 0.83100003 5.7211891e-039
-0.061731428 0.16303429 0.83100003 5.7168928e-039
-0.060293339 0.16342667 0.83300006 5.7151089e-039
-0.058847621 0.16381906 0.83500004 5.6218161e-039
-0.057257146 0.16381906 0.83500004 5.1608239e-039
-0.05566667 0.16381906 0.83500004 4.7002017e-039
-0.054205716 0.16421142 0.83700001 4.516881e-039
-0.052737147 0.16460383 0.83900005 4.4253958e-039
-0.051260952 0.16499619 0.84100002 4.2420766e-039
-0.049777146 0.16538857 0.84300005 4.0587769e-039
-0.048285715 0.16578096 0.84500003 4.8831566e-039
-0.046952382 0.1667619 0.85000002 5.7089768e-039
-0.045546666 0.16754667 0.85400003 6.2671827e-039
-0.044022858 0.16793905 0.85600007 6.8253815e-039
-0.042491429 0.16833143 0.85800004 7.1952458e-039
-0.040857144 0.16833143 0.85800004 7.6569302e-039
-0.03712 0.15930668 0.81200004 8.0239107e-039
-0.035573334 0.15930668 0.81200004 8.39124e-039
-0.034026667 0.15930668 0.81200004 8.1157209e-039
-0.032480001 0.15930668 0.81200004 7.8402229e-039
-0.030933335 0.15930668 0.81200004 8.0235449e-039
-0.15724762 0.17214476 0.86900002 8.1110672e-039
-0.15559238 0.17214476 0.86900002 7.5600641e-039
-0.15393715 0.17214476 0.86900002 7.1001453e-039
-0.15158097 0.17135239 0.86500007 6.9160918e-039
-0.14993334 0.17135239 0.86500007 6.7328047e-039
-0.14742857 0.17036191 0.86000001 6.8250242e-039
-0.1451124 0.16956954 0.85600007 7.0108321e-039
-0.14348191 0.16956954 0.85600007 6.2693182e-039
-0.14152001 0.16917333 0.85400003 5.6181895e-039
-0.13923809 0.16838096 0.85000002 5.1510905e-039
-0.13680953 0.16739048 0.84500003 4.7812149e-039
-0.13488001 0.16699429 0.84300005 4.8726693e-039
-0.1329581 0.1665981 0.84100002 4.9641657e-039
-0.13104382 0.1662019 0.83900005 5.2396904e-039
-0.12913714 0.16580573 0.83700001 5.5158961e-039
-0.12723809 0.16540954 0.83500004 5.0574165e-039
-0.12564762 0.16540954 0.83500004 4.6854488e-039
-0.12376001 0.16501334 0.83300006 4.5922148e-039
-0.12188 0.16461715 0.83100003 4.5133035e-039
-0.12000763 0.16422096 0.82900006 6.0892234e-039
-0.11842857 0.16422096 0.82900006 7.7462532e-039
-0.11684953 0.16422096 0.82900006 7.8424369e-039
-0.11527049 0.16422096 0.82900006 7.9338913e-039
-0.11341715 0.16382477 0.82700002 8.3930449e-039
-0.11184191 0.16382477 0.82700002 8.9454746e-039
-0.11000001 0.16342857 0.82500005 8.3958769e-039
-0.10842858 0.16342857 0.82500005 7.8423641e-039
-0.10685714 0.16342857 0.82500005 7.932057e-039
-0.10528572 0.16342857 0.82500005 8.0174227e-039
-0.10346286 0.16303238 0.82300001 8.286458e-039
-0.10189524 0.16303238 0.82300001 8.6581328e-039
-0.10032762 0.16303238 0.82300001 8.2954837e-039
-0.099000007 0.16342857 0.82500005 8.0117068e-039
-0.097192384 0.16303238 0.82300001 7.360948e-039
-0.09562476 0.16303238 0.82300001 6.8127838e-039
-0.094057143 0.16303238 0.82300001 6.8156341e-039
-0.092264764 0.16263619 0.82100004 6.8152753e-039
-0.090700962 0.16263619 0.82100004 6.5394101e-039
-0.089137144 0.16263619 0.82100004 6.2628204e-039
-0.087573335 0.16263619 0.82100004 6.4454082e-039
-0.086219043 0.16303238 0.82300001 6.6294393e-039
-0.084651433 0.16303238 0.82300001 6.5379654e-039
-0.083083808 0.16303238 0.82300001 6.4518696e-039
-0.081516191 0.16303238 0.82300001 6.6412803e-039
-0.079948567 0.16303238 0.82300001 6.8253128e-039
-0.078380957 0.16303238 0.82300001 6.91787e-039
-0.076813333 0.16303238 0.82300001 7.0104314e-039
-0.075245716 0.16303238 0.82300001 7.0111572e-039
-0.073857144 0.16342857 0.82500005 7.0111614e-039
-0.072285712 0.16342857 0.82500005 7.3788664e-039
-0.070714295 0.16342857 0.82500005 7.8298056e-039
-0.069310479 0.16382477 0.82700002 7.0965706e-039
-0.06773524 0.16382477 0.82700002 6.3629684e-039
-0.066320002 0.16422096 0.82900006 6.0889039e-039
-0.064740956 0.16422096 0.82900006 5.9045042e-039
-0.063314289 0.16461715 0.83100003 5.6268341e-039
-0.061731428 0.16461715 0.83100003 5.351329e-039
-0.060148574 0.16461715 0.83100003 5.3455921e-039
-0.058706671 0.16501334 0.83300006 5.3441418e-039
-0.057257146 0.16540954 0.83500004 4.9757082e-039
-0.05566667 0.16540954 0.83500004 4.7001975e-039
-0.054205716 0.16580573 0.83700001 4.700552e-039
-0.052611429 0.16580573 0.83700001 4.7005506e-039
-0.051260952 0.1665981 0.84100002 4.7923847e-039
-0.049777146 0.16699429 0.84300005 4.8845901e-039
-0.048457146 0.16798477 0.84800005 5.8008039e-039
-0.046841905 0.16798477 0.84800005 6.8206928e-039
-0.045546666 0.16917333 0.85400003 7.3824803e-039
-0.041862857 0.16124952 0.81400001 7.9345835e-039
-0.040213335 0.16085334 0.81200004 8.0278679e-039
-0.038571432 0.16045715 0.81000006 8.2104655e-039
-0.037028577 0.16045715 0.81000006 8.6685696e-039
-0.035573334 0.16085334 0.81200004 9.2192113e-039
-0.034026667 0.16085334 0.81200004 8.5763516e-039
-0.03232 0.16006096 0.80800003 8.0253498e-039
-0.030780952 0.16006096 0.80800003 8.3012262e-039
-0.018377144 0.15926857 0.80400002 6.8235542e-039
-0.016845714 0.15926857 0.80400002 6.6369951e-039
-0.015314286 0.15926857 0.80400002 5.99126e-039
-0.15724762 0.17380001 0.86900002 7.7440756e-039
-0.15523429 0.1734 0.86700004 7.4678558e-039
-0.15358287 0.1734 0.86700004 7.2831058e-039
-0.15105523 0.1724 0.86200005 7.099432e-039
-0.14941333 0.1724 0.86200005 7.0079581e-039
-0.14742857 0.17200001 0.86000001 6.7342481e-039
-0.14477333 0.17080002 0.85400003 6.4601653e-039
-0.14314666 0.17080002 0.85400003 5.8922807e-039
-0.14118859 0.17040001 0.85200006 5.3354958e-039
-0.13891047 0.16960001 0.84800005 5.2411169e-039
-0.13680953 0.16900001 0.84500003 5.1474723e-039
-0.13456 0.1682 0.84100002 5.2396511e-039
-0.13264191 0.16779999 0.83900005 5.331872e-039
-0.13073143 0.1674 0.83700001 5.5155696e-039
-0.12913714 0.1674 0.83700001 5.6995769e-039
-0.12723809 0.16700001 0.83500004 5.3318538e-039
-0.12534668 0.1666 0.83300006 5.0527866e-039
-0.12346286 0.16620001 0.83100003 4.8684248e-039
-0.12188 0.16620001 0.83100003 4.6843712e-039
-0.12000763 0.16580001 0.82900006 5.6170516e-039
-0.11814286 0.1654 0.82700002 6.5487554e-039
-0.11656762 0.1654 0.82700002 6.8272074e-039
-0.11499239 0.1654 0.82700002 7.1055683e-039
-0.11341715 0.1654 0.82700002 7.6580008e-039
-0.11157144 0.16500001 0.82500005 8.301208e-039
-0.10973334 0.1646 0.82300001 8.0257029e-039
-0.10842858 0.16500001 0.82500005 7.8420516e-039
-0.10685714 0.16500001 0.82500005 8.023231e-039
-0.10528572 0.16500001 0.82500005 8.1200958e-039
-0.10346286 0.1646 0.82300001 8.751832e-039
-0.10189524 0.1646 0.82300001 9.3301002e-039
-0.10032762 0.1646 0.82300001 8.8669697e-039
-0.098759994 0.1646 0.82300001 8.3123596e-039
-0.097192384 0.1646 0.82300001 8.0303875e-039
-0.095392384 0.16420001 0.82100004 7.8402383e-039
-0.093828574 0.16420001 0.82100004 7.6536778e-039
-0.092264764 0.16420001 0.82100004 7.4675027e-039
-0.090700962 0.16420001 0.82100004 7.1916445e-039
-0.089137144 0.16420001 0.82100004 6.9157723e-039
-0.087573335 0.16420001 0.82100004 7.1019488e-039
-0.086009525 0.16420001 0.82100004 7.3803279e-039
-0.084445722 0.16420001 0.82100004 7.1041068e-039
-0.082881905 0.16420001 0.82100004 6.8282402e-039
-0.081516191 0.1646 0.82300001 6.8285975e-039
-0.079948567 0.1646 0.82300001 6.9207945e-039
-0.078380957 0.1646 0.82300001 6.8286031e-039
-0.076813333 0.1646 0.82300001 6.8286003e-039
-0.075245716 0.1646 0.82300001 6.7353285e-039
-0.073678091 0.1646 0.82300001 6.7338823e-039
-0.072285712 0.16500001 0.82500005 6.8235556e-039
-0.070714295 0.16500001 0.82500005 7.0050868e-039
-0.069310479 0.1654 0.82700002 6.5448458e-039
-0.06773524 0.1654 0.82700002 6.084955e-039
-0.066160001 0.1654 0.82700002 5.9041595e-039
-0.064740956 0.16580001 0.82900006 5.8119484e-039
-0.06316191 0.16580001 0.82900006 5.6286208e-039
-0.06158286 0.16580001 0.82900006 5.4453029e-039
-0.060148574 0.16620001 0.83100003 5.445656e-039
-0.058706671 0.1666 0.83300006 5.4460064e-039
-0.057257146 0.16700001 0.83500004 5.3466291e-039
-0.05566667 0.16700001 0.83500004 5.1618819e-039
-0.054205716 0.1674 0.83700001 5.1618819e-039
-0.052611429 0.1674 0.83700001 5.1618861e-039
-0.051139049 0.16779999 0.83900005 5.343769e-039
-0.049895242 0.16900001 0.84500003 5.5267324e-039
-0.048571426 0.17 0.85000002 6.6377364e-039
-0.044963811 0.1628 0.81400001 7.7490964e-039
-0.043413334 0.1628 0.81400001 7.6569092e-039
-0.041862857 0.1628 0.81400001 7.4775598e-039
-0.040114287 0.162 0.81000006 7.5694121e-039
-0.038571432 0.162 0.81000006 7.6616162e-039
-0.036937144 0.16160001 0.80800003 7.9367737e-039
-0.035485715 0.162 0.81000006 8.3037444e-039
-0.033859048 0.16160001 0.80800003 7.9367499e-039
-0.03224 0.1612 0.80600005 7.6616148e-039
-0.030704763 0.1612 0.80600005 8.1200888e-039
-0.029169526 0.1612 0.80600005 8.5788921e-039
-0.022971429 0.16080001 0.80400002 7.8359181e-039
-0.021440001 0.16080001 0.80400002 7.4678544e-039
-0.019908572 0.16080001 0.80400002 7.1916249e-039
-0.018377144 0.16080001 0.80400002 6.8232011e-039
-0.016845714 0.16080001 0.80400002 6.4522578e-039
-0.015314286 0.16080001 0.80400002 5.8072429e-039
-0.013782857 0.16080001 0.80400002 5.072891e-039
-0.012251428 0.16080001 0.80400002 4.5179054e-039
-0.16000001 0.17666668 0.87500006 7.4703642e-039
-0.15797144 0.17626286 0.87300003 7.467853e-039
-0.15595049 0.17585905 0.87100005 7.4674943e-039
-0.15358287 0.17505144 0.86700004 7.4667768e-039
-0.15105523 0.17404191 0.86200005 7.3749413e-039
-0.14941333 0.17404191 0.86200005 7.2848981e-039
-0.14708571 0.1732343 0.85800004 6.6438419e-039
-0.1451124 0.17283049 0.85600007 5.9920111e-039
-0.14281143 0.17202286 0.85200006 5.5156004e-039
-0.14118859 0.17202286 0.85200006 5.1478689e-039
-0.13891047 0.17121525 0.84800005 5.3315091e-039
-0.13648573 0.17020573 0.84300005 5.6066456e-039
-0.13456 0.16980191 0.84100002 5.6977524e-039
-0.13264191 0.1693981 0.83900005 5.790325e-039
-0.13073143 0.16899428 0.83700001 5.7914208e-039
-0.12882857 0.16859047 0.83500004 5.8825262e-039
-0.12723809 0.16859047 0.83500004 5.6981252e-039
-0.12534668 0.16818668 0.83300006 5.5144724e-039
-0.12346286 0.16778287 0.83100003 5.2389827e-039
-0.12158667 0.16737907 0.82900006 4.9623776e-039
-0.1197181 0.16697524 0.82700002 5.1453087e-039
-0.11814286 0.16697524 0.82700002 5.4344891e-039
-0.11656762 0.16697524 0.82700002 5.9055468e-039
-0.11499239 0.16697524 0.82700002 6.3676249e-039
-0.11314286 0.16657144 0.82500005 7.0148104e-039
-0.11157144 0.16657144 0.82500005 7.6580134e-039
-0.10973334 0.16616762 0.82300001 7.7480511e-039
-0.10842858 0.16657144 0.82500005 7.9313731e-039
-0.10659809 0.16616762 0.82300001 8.1146966e-039
-0.10528572 0.16657144 0.82500005 8.2987333e-039
-0.10346286 0.16616762 0.82300001 9.1256199e-039
-0.10164762 0.16576381 0.82100004 1.0051866e-038
-0.10008381 0.16576381 0.82100004 9.3254311e-039
-0.098520003 0.16576381 0.82100004 8.6757597e-039
-0.096956201 0.16576381 0.82100004 8.7607723e-039
-0.095392384 0.16576381 0.82100004 8.8529511e-039
-0.093828574 0.16576381 0.82100004 8.485951e-039
-0.092264764 0.16576381 0.82100004 8.1175342e-039
-0.090700962 0.16576381 0.82100004 7.8409515e-039
-0.089137144 0.16576381 0.82100004 7.6572848e-039
-0.087573335 0.16576381 0.82100004 7.8409586e-039
-0.086009525 0.16576381 0.82100004 8.114307e-039
-0.084445722 0.16576381 0.82100004 7.6544051e-039
-0.082881905 0.16576381 0.82100004 7.2870631e-039
-0.081318095 0.16576381 0.82100004 7.1033935e-039
-0.079754286 0.16576381 0.82100004 7.0122825e-039
-0.078190483 0.16576381 0.82100004 6.8268262e-039
-0.076813333 0.16616762 0.82300001 6.733546e-039
-0.075245716 0.16616762 0.82300001 6.5487904e-039
-0.073678091 0.16616762 0.82300001 6.4562304e-039
-0.072110482 0.16616762 0.82300001 6.3622355e-039
-0.070542857 0.16616762 0.82300001 6.2700469e-039
-0.069142863 0.16657144 0.82500005 5.9931125e-039
-0.06773524 0.16697524 0.82700002 5.8105191e-039
-0.066160001 0.16697524 0.82700002 5.7197612e-039
-0.064584762 0.16697524 0.82700002 5.7201073e-039
-0.06316191 0.16737907 0.82900006 5.6286194e-039
-0.06158286 0.16737907 0.82900006 5.5371398e-039
-0.060003813 0.16737907 0.82900006 5.5374971e-039
-0.058565717 0.16778287 0.83100003 5.6275306e-039
-0.057120007 0.16818668 0.83300006 5.6260886e-039
-0.05566667 0.16859047 0.83500004 5.7161262e-039
-0.054076191 0.16859047 0.83500004 5.7146885e-039
-0.052485716 0.16859047 0.83500004 5.7129047e-039
-0.051017143 0.16899428 0.83700001 5.986986e-039
-0.049777146 0.17020573 0.84300005 6.2650177e-039
-0.046514284 0.16435048 0.81400001 7.4736026e-039
-0.044963811 0.16435048 0.81400001 8.7585792e-039
-0.043413334 0.16435048 0.81400001 7.9313395e-039
-0.041760001 0.16394667 0.81200004 7.1030264e-039
-0.040114287 0.16354287 0.81000006 7.1012341e-039
-0.038571432 0.16354287 0.81000006 7.194143e-039
-0.036937144 0.16313905 0.80800003 7.2874106e-039
-0.0353981 0.16313905 0.80800003 7.3785315e-039
-0.03377524 0.16273524 0.80600005 7.2859813e-039
-0.03224 0.16273524 0.80600005 7.289591e-039
-0.030628571 0.16233143 0.80400002 7.9360479e-039
-0.029097142 0.16233143 0.80400002 8.5774544e-039
-0.027497144 0.16192764 0.80200005 8.3008633e-039
-0.025904762 0.16152382 0.80000001 8.0242722e-039
-0.024441905 0.16192764 0.80200005 8.2072187e-039
-0.022914287 0.16192764 0.80200005 8.3873038e-039
-0.021386668 0.16192764 0.80200005 7.836651e-039
-0.019908572 0.16233143 0.80400002 7.2834702e-039
-0.018377144 0.16233143 0.80400002 6.8228423e-039
-0.016845714 0.16233143 0.80400002 6.3629362e-039
-0.015314286 0.16233143 0.80400002 5.6232188e-039
-0.013782857 0.16233143 0.80400002 4.8867187e-039
-0.012251428 0.16233143 0.80400002 4.4257265e-039
-0.010720001 0.16233143 0.80400002 4.0555217e-039
-0.0091885719 0.16233143 0.80400002 4.4232308e-039
-0.15963428 0.17792572 0.87300003 7.3774595e-039
-0.15797144 0.17792572 0.87300003 7.283466e-039
-0.15559238 0.17711048 0.86900002 7.466774e-039
-0.15322858 0.17629525 0.86500007 7.6504478e-039
-0.15105523 0.17568383 0.86200005 7.3760217e-039
-0.14906667 0.17527619 0.86000001 7.1030208e-039
-0.14674287 0.17446098 0.85600007 6.6355868e-039
-0.14409524 0.1732381 0.85000002 6.07523e-039
-0.1424762 0.1732381 0.85000002 5.7914559e-039
-0.14052571 0.17283049 0.84800005 5.5134074e-039
-0.13809143 0.17181143 0.84300005 5.6059309e-039
-0.13648573 0.17181143 0.84300005 5.6984769e-039
-0.13424002 0.17099619 0.83900005 5.7892306e-039
-0.13264191 0.17099619 0.83900005 5.7892418e-039
-0.13073143 0.17058857 0.83700001 5.8814486e-039
-0.12882857 0.17018095 0.83500004 5.9739988e-039
-0.12723809 0.17018095 0.83500004 5.8825206e-039
-0.12534668 0.16977334 0.83300006 5.7932047e-039
-0.12346286 0.16936572 0.83100003 5.5169891e-039
-0.12158667 0.1689581 0.82900006 5.3329384e-039
-0.12000763 0.1689581 0.82900006 5.3318412e-039
-0.11814286 0.16855049 0.82700002 5.4226075e-039
-0.11656762 0.16855049 0.82700002 5.3422598e-039
-0.11499239 0.16855049 0.82700002 5.262341e-039
-0.11314286 0.16814286 0.82500005 6.1843631e-039
-0.11157144 0.16814286 0.82500005 7.1984898e-039
-0.10973334 0.16773525 0.82300001 7.473269e-039
-0.10816572 0.16773525 0.82300001 7.8391775e-039
-0.10659809 0.16773525 0.82300001 8.0217751e-039
-0.10503048 0.16773525 0.82300001 8.2043769e-039
-0.10321143 0.16732763 0.82100004 8.5735196e-039
-0.10164762 0.16732763 0.82100004 9.0344963e-039
-0.10008381 0.16732763 0.82100004 8.482054e-039
-0.098520003 0.16732763 0.82100004 7.9299592e-039
-0.096956201 0.16732763 0.82100004 8.1129085e-039
-0.095392384 0.16732763 0.82100004 8.2962082e-039
-0.093828574 0.16732763 0.82100004 7.9306487e-039
-0.092040002 0.16692001 0.81900007 7.657289e-039
-0.090480007 0.16692001 0.81900007 7.5636542e-039
-0.088920005 0.16692001 0.81900007 7.3785609e-039
-0.087360002 0.16692001 0.81900007 7.4707691e-039
-0.0858 0.16692001 0.81900007 7.6547834e-039
-0.084240004 0.16692001 0.81900007 7.3785441e-039
-0.082680009 0.16692001 0.81900007 7.1937983e-039
-0.081318095 0.16732763 0.82100004 6.7353411e-039
-0.079754286 0.16732763 0.82100004 6.2772524e-039
-0.078190483 0.16732763 0.82100004 6.4591423e-039
-0.076626666 0.16732763 0.82100004 6.6410043e-039
-0.075245716 0.16773525 0.82300001 6.5480771e-039
-0.073678091 0.16773525 0.82300001 6.5473555e-039
-0.072110482 0.16773525 0.82300001 6.3622454e-039
-0.070542857 0.16773525 0.82300001 6.1778569e-039
-0.069142863 0.16814286 0.82500005 5.9945446e-039
-0.067571431 0.16814286 0.82500005 5.8115883e-039
-0.066160001 0.16855049 0.82700002 5.8112282e-039
-0.064584762 0.16855049 0.82700002 5.8130134e-039
-0.06316191 0.1689581 0.82900006 5.7204535e-039
-0.06158286 0.1689581 0.82900006 5.6261082e-039
-0.060003813 0.1689581 0.82900006 5.7175864e-039
-0.058565717 0.16936572 0.83100003 5.8090562e-039
-0.057120007 0.16977334 0.83300006 5.9008846e-039
-0.055533338 0.16977334 0.83300006 5.9923544e-039
-0.054076191 0.17018095 0.83500004 5.9927075e-039
-0.052485716 0.17018095 0.83500004 5.993439e-039
-0.05089524 0.17018095 0.83500004 6.177124e-039
-0.04812381 0.16610478 0.81500006 6.3608146e-039
-0.046514284 0.16590095 0.81400001 6.8271864e-039
-0.044963811 0.16590095 0.81400001 7.3799804e-039
-0.043413334 0.16590095 0.81400001 6.5480673e-039
-0.041760001 0.16549334 0.81200004 5.807987e-039
-0.040213335 0.16549334 0.81200004 5.1633294e-039
-0.038571432 0.16508572 0.81000006 4.5186719e-039
-0.036937144 0.1646781 0.80800003 4.1502397e-039
-0.0353981 0.1646781 0.80800003 3.8740325e-039
-0.03377524 0.16427048 0.80600005 4.7045163e-039
-0.032160003 0.16386285 0.80400002 5.53537e-039
-0.030628571 0.16386285 0.80400002 5.8141359e-039
-0.029024763 0.16345525 0.80200005 6.0010355e-039
-0.027428573 0.16304761 0.80000001 6.7414591e-039
-0.025904762 0.16304761 0.80000001 7.57407e-039
-0.024380952 0.16304761 0.80000001 7.748407e-039
-0.022857143 0.16304761 0.80000001 7.9284991e-039
-0.021386668 0.16345525 0.80200005 7.3774945e-039
-0.019859049 0.16345525 0.80200005 6.916138e-039
-0.018331429 0.16345525 0.80200005 6.4569353e-039
-0.016845714 0.16386285 0.80400002 5.9981081e-039
-0.015314286 0.16386285 0.80400002 5.3470004e-039
-0.013782857 0.16386285 0.80400002 4.7012653e-039
-0.012251428 0.16386285 0.80400002 4.333189e-039
-0.010720001 0.16386285 0.80400002 4.0559015e-039
-0.0091885719 0.16386285 0.80400002 4.2403039e-039
-0.0076571428 0.16386285 0.80400002 4.5183019e-039
-0.15890287 0.17876573 0.86900002 7.1927095e-039
-0.15688573 0.17835429 0.86700004 7.1001523e-039
-0.15433906 0.17732573 0.86200005 7.466774e-039
-0.15234286 0.17691429 0.86000001 7.8352034e-039
-0.1503543 0.17650285 0.85800004 7.3771133e-039
-0.14837334 0.17609143 0.85600007 7.0097405e-039
-0.14605716 0.17526858 0.85200006 6.627301e-039
-0.14375621 0.17444573 0.84800005 6.2549227e-039
-0.1416381 0.17382857 0.84500003 6.0676518e-039
-0.13969715 0.17341715 0.84300005 5.9732897e-039
-0.13809143 0.17341715 0.84300005 5.8803626e-039
-0.13616191 0.17300572 0.84100002 5.8821507e-039
-0.13424002 0.17259429 0.83900005 5.8810689e-039
-0.13232571 0.17218286 0.83700001 5.8810801e-039
-0.13041905 0.17177144 0.83500004 5.9729282e-039
-0.12882857 0.17177144 0.83500004 6.1580355e-039
-0.12693335 0.17136 0.83300006 6.0672776e-039
-0.12504572 0.17094857 0.83100003 6.0687238e-039
-0.12346286 0.17094857 0.83100003 5.8872164e-039
-0.12158667 0.17053714 0.82900006 5.7024468e-039
-0.12000763 0.17053714 0.82900006 5.60987e-039
-0.11814286 0.17012572 0.82700002 5.5155318e-039
-0.11656762 0.17012572 0.82700002 4.779064e-039
-0.11499239 0.17012572 0.82700002 4.147374e-039
-0.11314286 0.1697143 0.82500005 5.4442295e-039
-0.11157144 0.1697143 0.82500005 6.8264563e-039
-0.10973334 0.16930287 0.82300001 7.2906883e-039
-0.10816572 0.16930287 0.82300001 7.7498559e-039
-0.10659809 0.16930287 0.82300001 7.9335185e-039
-0.10503048 0.16930287 0.82300001 8.1132491e-039
-0.10321143 0.16889144 0.82100004 8.0196269e-039
-0.10164762 0.16889144 0.82100004 8.0192682e-039
-0.10008381 0.16889144 0.82100004 7.6519276e-039
-0.098520003 0.16889144 0.82100004 7.2874583e-039
-0.096956201 0.16889144 0.82100004 7.4700559e-039
-0.095392384 0.16889144 0.82100004 7.7459127e-039
-0.093828574 0.16889144 0.82100004 7.4707565e-039
-0.092040002 0.16848001 0.81900007 7.2867212e-039
-0.090480007 0.16848001 0.81900007 7.1945214e-039
-0.088920005 0.16848001 0.81900007 7.1945284e-039
-0.087360002 0.16848001 0.81900007 7.1945354e-039
-0.0858 0.16848001 0.81900007 7.19452e-039
-0.084240004 0.16848001 0.81900007 7.1026704e-039
-0.082680009 0.16848001 0.81900007 7.1023145e-039
-0.081318095 0.16889144 0.82100004 6.2754405e-039
-0.079754286 0.16889144 0.82100004 5.5404048e-039
-0.078190483 0.16889144 0.82100004 6.0914248e-039
-0.076626666 0.16889144 0.82100004 6.6409916e-039
-0.075062856 0.16889144 0.82100004 6.6395469e-039
-0.073499054 0.16889144 0.82100004 6.6391826e-039
-0.071935244 0.16889144 0.82100004 6.3625957e-039
-0.070371434 0.16889144 0.82100004 6.1792848e-039
-0.06897524 0.16930287 0.82300001 5.9959754e-039
-0.067571431 0.1697143 0.82500005 5.903421e-039
-0.066160001 0.17012572 0.82700002 5.9030595e-039
-0.064584762 0.17012572 0.82700002 5.903414e-039
-0.06316191 0.17053714 0.82900006 5.8122932e-039
-0.061434288 0.17012572 0.82700002 5.8104995e-039
-0.060003813 0.17053714 0.82900006 5.9016175e-039
-0.058565717 0.17094857 0.83100003 5.9930901e-039
-0.056982856 0.17094857 0.83100003 6.0849214e-039
-0.055533338 0.17136 0.83300006 6.2685882e-039
-0.05394667 0.17136 0.83300006 6.2689441e-039
-0.052360002 0.17136 0.83300006 6.3615083e-039
-0.049920004 0.16848001 0.81900007 6.4547899e-039
-0.04812381 0.16765715 0.81500006 6.5473499e-039
-0.04657143 0.16765715 0.81500006 6.2729266e-039
-0.045019053 0.16765715 0.81500006 5.9931083e-039
-0.043413334 0.16745143 0.81400001 5.2544699e-039
-0.041862857 0.16745143 0.81400001 4.6105256e-039
-0.040213335 0.16704001 0.81200004 3.2218542e-039
-0.038571432 0.16662857 0.81000006 1.9451046e-039
-0.036937144 0.16621715 0.80800003 1.1171306e-039
-0.0353981 0.16621715 0.80800003 3.8174873e-040
-0.03377524 0.16580573 0.80600005 2.1259253e-039
-0.032160003 0.16539429 0.80400002 3.8668579e-039
-0.030552382 0.16498287 0.80200005 3.6796052e-039
-0.028952381 0.16457143 0.80000001 3.5038235e-039
-0.02736 0.16416001 0.79800004 5.256946e-039
-0.025840001 0.16416001 0.79800004 7.0997866e-039
-0.024320001 0.16416001 0.79800004 7.2899484e-039
-0.0228 0.16416001 0.79800004 7.4714684e-039
-0.021333333 0.16457143 0.80000001 7.0101399e-039
-0.019809525 0.16457143 0.80000001 6.6406245e-039
-0.018331429 0.16498287 0.80200005 6.181426e-039
-0.016761905 0.16457143 0.80000001 5.7200849e-039
-0.015276191 0.16498287 0.80200005 5.0711282e-039
-0.013748572 0.16498287 0.80200005 4.5175887e-039
-0.012220953 0.16498287 0.80200005 4.2409906e-039
-0.010720001 0.16539429 0.80400002 4.057328e-039
-0.0091885719 0.16539429 0.80400002 4.1491733e-039
-0.0092571434 0.1999543 0.97200006 4.3335533e-039
-0.0073828571 0.19933715 0.96900004 4.702682e-039
-0.005537143 0.19933715 0.96900004 5.1615105e-039
-0.0036914286 0.19933715 0.96900004 4.8856551e-039
-0.00184 0.19872001 0.96600002 4.7023218e-039
0 0.19933715 0.96900004 4.7948552e-039
0.0018457143 0.19933715 0.96900004 4.8866851e-039
0.0036914286 0.19933715 0.96900004 4.9788723e-039
-0.18304762 0.1995219 0.96100003 7.3770839e-039
-0.16556571 0.18228953 0.87800002 7.7451448e-039
-0.16389333 0.18228953 0.87800002 7.5607577e-039
-0.16129714 0.18125144 0.87300003 7.4678502e-039
-0.15890287 0.18042095 0.86900002 7.2845422e-039
-0.15652381 0.17959049 0.86500007 7.1927039e-039
-0.15433906 0.17896762 0.86200005 7.3770909e-039
-0.15198858 0.17813715 0.85800004 7.6533331e-039
-0.15000382 0.17772192 0.85600007 7.1941752e-039
-0.14802667 0.17730668 0.85400003 6.7327893e-039
-0.14537144 0.17606096 0.84800005 6.1655773e-039
-0.14324762 0.17543811 0.84500003 5.5155444e-039
-0.1416381 0.17543811 0.84500003 5.6070127e-039
-0.13969715 0.17502287 0.84300005 5.7903236e-039
-0.13809143 0.17502287 0.84300005 5.5148157e-039
-0.13616191 0.17460762 0.84100002 5.2396624e-039
-0.13424002 0.17419238 0.83900005 5.5155234e-039
-0.13232571 0.17377715 0.83700001 5.8832353e-039
-0.13041905 0.17336191 0.83500004 5.9750834e-039
-0.12882857 0.17336191 0.83500004 6.15876e-039
-0.12693335 0.17294668 0.83300006 6.0672888e-039
-0.12504572 0.17253143 0.83100003 5.977261e-039
-0.12346286 0.17253143 0.83100003 5.8857983e-039
-0.12158667 0.17211621 0.82900006 5.8861318e-039
-0.12000763 0.17211621 0.82900006 5.7931949e-039
-0.11842857 0.17211621 0.82900006 5.700293e-039
-0.11656762 0.17170095 0.82700002 5.14642e-039
-0.11499239 0.17170095 0.82700002 4.5932518e-039
-0.11341715 0.17170095 0.82700002 5.3351076e-039
-0.11157144 0.17128572 0.82500005 6.1692319e-039
-0.11000001 0.17128572 0.82500005 6.1793493e-039
-0.10816572 0.17087048 0.82300001 6.2812097e-039
-0.10659809 0.17087048 0.82300001 7.2895868e-039
-0.10503048 0.17087048 0.82300001 8.3898233e-039
-0.10321143 0.17045525 0.82100004 8.2983522e-039
-0.10164762 0.17045525 0.82100004 8.2987067e-039
-0.10008381 0.17045525 0.82100004 7.7473322e-039
-0.098520003 0.17045525 0.82100004 7.1959703e-039
-0.096956201 0.17045525 0.82100004 7.4711279e-039
-0.095392384 0.17045525 0.82100004 7.7466301e-039
-0.093828574 0.17045525 0.82100004 7.3789252e-039
-0.092040002 0.17004001 0.81900007 7.0115776e-039
-0.090480007 0.17004001 0.81900007 7.1030488e-039
-0.088920005 0.17004001 0.81900007 7.2863611e-039
-0.087360002 0.17004001 0.81900007 7.1941668e-039
-0.0858 0.17004001 0.81900007 7.1927179e-039
-0.084240004 0.17004001 0.81900007 7.1927039e-039
-0.082680009 0.17004001 0.81900007 7.100874e-039
-0.081318095 0.17045525 0.82100004 6.6409846e-039
-0.079754286 0.17045525 0.82100004 6.1814498e-039
-0.078190483 0.17045525 0.82100004 6.4569577e-039
-0.076626666 0.17045525 0.82100004 6.8246514e-039
-0.075062856 0.17045525 0.82100004 6.7320929e-039
-0.073499054 0.17045525 0.82100004 6.6395343e-039
-0.071935244 0.17045525 0.82100004 6.4558577e-039
-0.070542857 0.17087048 0.82300001 6.2725496e-039
-0.069142863 0.17128572 0.82500005 6.1792848e-039
-0.06773524 0.17170095 0.82700002 6.0870878e-039
-0.066160001 0.17170095 0.82700002 5.9948922e-039
-0.064584762 0.17170095 0.82700002 5.9023392e-039
-0.06316191 0.17211621 0.82900006 5.9037741e-039
-0.06158286 0.17211621 0.82900006 5.9952495e-039
-0.060003813 0.17211621 0.82900006 6.0849326e-039
-0.058565717 0.17253143 0.83100003 6.269677e-039
-0.056982856 0.17253143 0.83100003 6.2700343e-039
-0.055400003 0.17253143 0.83100003 6.3622285e-039
-0.053817146 0.17253143 0.83100003 6.5458995e-039
-0.052234285 0.17253143 0.83100003 6.6377434e-039
-0.049920004 0.17004001 0.81900007 6.5473513e-039
-0.048360001 0.17004001 0.81900007 6.4569451e-039
-0.046685714 0.16962476 0.81700003 6.0892388e-039
-0.045019053 0.16920954 0.81500006 5.716513e-039
-0.043466669 0.16920954 0.81500006 5.1626274e-039
-0.041862857 0.16900189 0.81400001 4.606927e-039
-0.040213335 0.16858667 0.81200004 3.6881909e-039
-0.038571432 0.16817145 0.81000006 2.6779753e-039
-0.036937144 0.1677562 0.80800003 2.2176964e-039
-0.035310481 0.16734096 0.80600005 1.7578224e-039
-0.033691429 0.16692571 0.80400002 2.6761984e-039
-0.032160003 0.16692571 0.80400002 3.6863692e-039
-0.030552382 0.16651049 0.80200005 3.3154203e-039
-0.028952381 0.16609524 0.80000001 3.0366782e-039
-0.02736 0.16568001 0.79800004 3.3161252e-039
-0.025807621 0.1654724 0.79700005 3.5960093e-039
-0.024289524 0.1654724 0.79700005 5.5418482e-039
-0.022771429 0.1654724 0.79700005 7.4772025e-039
-0.021253334 0.1654724 0.79700005 7.103039e-039
-0.019760001 0.16568001 0.79800004 6.7328103e-039
-0.018240001 0.16568001 0.79800004 6.1810645e-039
-0.016761905 0.16609524 0.80000001 5.6260928e-039
-0.015238095 0.16609524 0.80000001 5.0714813e-039
-0.013714286 0.16609524 0.80000001 4.5175845e-039
-0.012190476 0.16609524 0.80000001 3.8736458e-039
-0.010666667 0.16609524 0.80000001 3.2304428e-039
-0.0092285722 0.20118286 0.96900004 4.1484474e-039
-0.0073828571 0.20118286 0.96900004 4.6083466e-039
-0.005537143 0.20118286 0.96900004 5.0682331e-039
